-0.21685553435547925 0.0421555656083023 -0.007909963983396594
-0.2185506193110623 0.04118770902880846 -0.009274929178281734
-0.21503363808887033 0.04265080267284489 -0.008791270667812422
-0.20619389621538525 0.04343231902266726 -0.01849186960223265
-0.20641027724029462 0.043157649957177364 -0.01923063774591223
-0.20168705600499093 0.0457263635870212 -0.016048258424248948
-0.2082759612703156 0.04327752986612417 -0.016202410048083284
-0.24063849474475024 0.025338194481596722 -0.024676262610290146
-0.24070281103697713 0.026766683467538726 -0.02291692196419548
-0.2341437955699796 0.029580927821227117 -0.02237033904240338
-0.23781410351508334 0.029872869229701973 -0.019889245128396023
-0.23756472659619302 0.029697655885166273 -0.020380964897259914
-0.2420803230103572 0.026935966351082873 -0.021779483792275286
-0.2371906845503684 0.033392070606158786 -0.012420659658831622
-0.24553824287848675 0.03013401459203528 -0.012760384112881197
-0.2436810652464392 0.03225402941345607 -0.006898033999821844
-0.23027102060329854 0.036833717960348726 -0.00888710679561438
-0.23261961309648124 0.03719290902841052 -0.003546311407465379
-0.2286015402560068 0.038329918287690154 -0.005131809969320884
-0.23345543445622435 0.037363872071650386 0.010800128718762432
-0.24292736342276847 0.03391767186031024 0.007064357425608585
-0.23007149131566712 0.038447791901294 0.0030833329664213625
-0.2354550274957217 0.03649882846592461 0.004216285557482406
-0.22778676089885183 0.03930189578444126 0.0059550203817240995
-0.2609537502477508 0.026182607420103844 -0.00964250932702645
-0.25109548646709706 0.02931080321980623 -0.0083955149256512
-0.2525315561646135 0.028639285440932846 -0.009479617557103541
-0.267918235792284 0.025466808714867686 -0.0035883316858507674
-0.2690111081813759 0.023975582165705722 -0.00917156104320599
-0.2729587517018704 0.02461510615639672 0.002101328243247018
-0.2696109733958184 0.025649568153927434 0.00626477095740203
-0.2608635333872176 0.028340031215399675 0.01015922662803124
-0.2544956505351268 0.03021810096346427 0.00949443232369237
-0.26894520003411965 0.024435119523571695 0.015937599205591214
-0.25089060381333134 0.02879618340684376 0.02074054393646304
-0.25474803078671976 0.028339631644643037 0.017814779957069763
-0.2511735564577609 0.031085918594160156 0.011041631804785372
-0.2850915069732032 0.021205244083106985 0.0004972069308891515
-0.2902504912911108 0.019790259476041527 0.0020648043563645424
-0.29522805549117626 0.018539037329191394 0.006157307375102266
-0.29618762047096553 0.018149054358165894 0.0020373166399346825
-0.29024451020736547 0.019292651079677328 0.014801395748262343
-0.28681610742188096 0.020488473269779973 0.012906286682333405
-0.28310920777663245 0.0212068584682484 0.01403365451149586
-0.27818759566835605 0.021114289834299305 0.019029393313430523
-0.29021161626480957 0.015350546992530887 0.02307062940253413
-0.27724400474810534 0.020820127833039954 0.02000767281307959
-0.2834975665123508 0.01762055518940271 0.022226469878161036
-0.30869126063341584 0.016183711607134846 0.010153176853850346
-0.30911571792628073 0.016137418535239968 0.010046829015894269
-0.32033412721788923 0.014485835356775216 0.010429542182052814
-0.3122375740638643 0.013725154573419093 0.019541675304561464
-0.31354775872273455 0.0116838684475876 0.022842552766013352
-0.3077689011386917 0.007082010542952553 0.029629694947347924
-0.31081760872200737 0.011294602944209722 0.02389972415321556
-0.337249798172854 0.012398959791065435 0.017517232075605824
-0.3462055399266045 0.01031533394912574 0.020200920953372913
-0.3426371297719681 0.007765977245917994 0.02437907001284268
-0.3404504822541706 0.006950840714758323 0.025727762436339265
-0.33763355599823314 0.001351283428845745 0.031249717208234568
-0.3255776101152416 0.005049330405196286 0.02917243671011893
-0.3567223188023518 0.006432715023392435 0.02410391707041779
-0.3614382108453168 0.004182615370221548 0.025929992664579224
-0.363964499335965 0.00012337641940321273 0.027747807523522506
-0.3559698422836274 0.0010834407989853154 0.028640600369306084
-0.357298561694292 -0.007413014818531373 0.03096343406655004
-0.3582893614084653 -0.0024651243102577548 0.03029246443371591
-0.37717812312388405 -0.0003554285284151105 0.03028628119096024
-0.38173806667710436 -0.0035593028245856882 0.034346781768881035
-0.38203356544306716 -0.008994924653950975 0.03620219220951503
-0.3707484806416797 -0.007343353363695275 0.029726606248652518
-0.37262137306917315 -0.014179623512862378 0.030072958860649847
-0.37341299199629097 -0.012809959914725949 0.03104975709847012
-0.3922018162275867 -0.010926200763467482 0.04440555254900012
-0.39403591541745947 -0.01608867836824879 0.04704693599854497
-0.3918714494122003 -0.01919901687078861 0.04469703143067283
-0.39290795240770754 -0.022120834765874814 0.04499505350866767
-0.391258502297362 -0.02433262838384181 0.03944441954732437
-0.38849245833937407 -0.0205623589141795 0.038905456572975054
-0.39580248537927404 -0.02076184321748711 0.04951789650356619
-0.40313929341963434 -0.02469972569539498 0.06656781347118956
-0.4000723988100812 -0.026942769404092737 0.05851220969577266
-0.3960178701942518 -0.02803395646110785 0.04517515556006536
-0.39991826473604425 -0.033502360988282395 0.04396794364066028
-0.39851005284657387 -0.03171575511605723 0.04424530714576769
-0.40387103178171757 -0.030353308429183243 0.06565570928673216
-0.41085874132831374 -0.03299788637611226 0.08175098121465486
-0.41316991788860136 -0.03463929245257075 0.08486451627394423
-0.4104419505951234 -0.03624300837168463 0.0731263938329565
-0.41661497497021466 -0.040823908460322765 0.07150249004042278
-0.4134173331583011 -0.0406417655458298 0.06428554666846945
-0.4207118801173559 -0.03342800251740135 0.10252044327049413
-0.4230446436768481 -0.034063681145828736 0.10449870210191158
-0.4271476699818836 -0.03493310638781945 0.10657053496870858
-0.42798427228691455 -0.03592838309118631 0.10371037862629186
-0.4360760332284364 -0.03696845185331034 0.10545886338182663
-0.42764044943501817 -0.038923029455077585 0.09525014501450804
-0.43623691292702427 -0.028975285366455838 0.1279352432874018
-0.44095013375001574 -0.02749104581118794 0.134333189411258
-0.44226214710622763 -0.030528416979299117 0.12856042679042534
-0.43941726418181704 -0.034746904215538665 0.11422074470057966
-0.45242622735194915 -0.033600811763672536 0.12104566704388792
-0.44335233749952857 -0.03519021786157364 0.11350678561606112
-0.44595005190991055 -0.0292627380246034 0.133878436625306
-0.456201508456714 -0.027593064846991512 0.14330748441309316
-0.4560470229269149 -0.02895516291050314 0.13965170965177545
-0.46255656900045133 -0.0292012469774488 0.14031573370978634
-0.4648406782584363 -0.03013184211345908 0.13627205853984264
-0.461534133408194 -0.03033404942313315 0.1354489677078546
-0.4642079129467434 -0.026882437141307017 0.148714313038072
-0.4712100400885197 -0.025634246636305567 0.15327211593659956
-0.47471493139753823 -0.026302554275376866 0.15071272909444106
-0.4711054484911617 -0.028596211406528797 0.14204481326845456
-0.47413681205824165 -0.024507618037430012 0.15608314963913927
-0.4825537993331402 -0.023369797750705915 0.1575159452080149
-0.48065907435469307 -0.02502992165280819 0.1529839006062404
-0.48258689988053693 -0.02552898842903394 0.14904820911696595
-0.49139908092853557 -0.02301762002016091 0.14621882880376474
-0.49061435601158354 -0.025400750695951945 0.1345771968350318
-0.4823163256702374 -0.027582187774759997 0.14008883776026154
-0.480911374006281 -0.02684014482607956 0.14481116566565536
-0.48738581635124545 -0.022829324259262363 0.15443361802404396
-0.4916308652113365 -0.02205886133670809 0.1499000831371222
-0.4957716214067091 -0.017464235412449267 0.14924063424643125
-0.4946385894195404 -0.018795467316115002 0.1495095087075196
-0.4856191525744022 -0.020588859358997624 0.1599985705038775
-0.48525763012050793 -0.01689882546692683 0.1636639081443367
-0.49140836640641894 -0.011879513620519776 0.16285060881196153
-0.4931666071334825 -0.013575134392552951 0.16029755004948035
-0.4954281180251489 -0.0083571375955506 0.1599530129123773
-0.49481080437438185 -0.012641404381160824 0.15935444524648623
-0.4870708101913726 -0.012345309550151892 0.16465699653750257
-0.4840527055117132 -0.009976514025545434 0.16588762466952195
-0.488680309862131 -0.0055336900964702085 0.16544897844295825
-0.49417328056392756 -0.00437945581234198 0.16268355695646503
-0.486239960104653 -0.014495727567364308 0.16457021649673417
-0.48084318234789636 -0.014976775671648287 0.16467289428967535
-0.47797146648180766 -0.012638563862969104 0.16576222703183158
-0.4786916147772909 -0.008212451924700949 0.16658788192928886
-0.4810364817171999 -0.006819774469295695 0.1667231798526909
-0.48564923889826556 -0.006488654157248318 0.16616602172464967
-0.47257751559591205 -0.005939519481765169 0.1667080467035693
-0.4721671337443294 -0.003883404296722043 0.16681385558469866
-0.48044882425872454 3.952232793826402E-06 0.1670329838395923
-0.48301279783938667 -0.001256214534437897 0.166986341057936
-0.47085377022389846 -0.00022674480905750214 0.16626429317994434
-0.47249936338028414 0.0012256610471730934 0.16633626992934178
-0.4781030376692142 0.003909087733509428 0.1667034473840721
-0.48022769211136823 0.0019781848142177458 0.16701776991979653
-0.4752059502925404 0.007277300069500516 0.1648783747381551
-0.4759226139455596 0.007467115008348674 0.1649550144650114
-0.48181423731103995 0.009361416856123017 0.16528722972938917
-0.4856569809378041 0.008035502126705082 0.16571630879249516
-0.4853195306124436 0.004801645392454033 0.16646239823611006
-0.48263502383671486 0.004764341864373803 0.16670770104988286
-0.4869848099582604 0.01067909358910347 0.16379991440795807
-0.4902242279782363 0.008457734341441652 0.16339703741106176
-0.49088684372460556 0.004147133547959943 0.16478968425419818
-0.49006207613771874 0.0037720252263390526 0.16519781322749758
-0.49160092816073453 0.010252232920681318 0.15954813290445244
-0.4937760190581806 0.006819145876425101 0.16039096069175382
-0.4940801631026817 0.004993041044506018 0.16117400801643555
-0.4914803105690076 0.005207199274868906 0.16414273876981442
-0.49604490640394183 0.0034904883742850937 0.15835972219833996
-0.4973233602048235 0.003022263643382798 0.15469725173585472
-0.497570842553789 -0.002327746067633842 0.15792179194888234
-0.49552843085584 -0.003841224780170509 0.16118808891358838
-0.4933631139639848 -0.0007050762087714941 0.1629521027495259
-0.49130316154818593 0.0015867155981992586 0.16472667141481215
-0.49929135216494913 0.0002891624948090283 0.14876791040564286
-0.5003009765101077 -0.0035446114966009 0.14870572367665108
-0.500339031650124 -0.00838561774501466 0.14452644540336962
-0.4994924384995055 -0.008197020521311457 0.14989760932333132
-0.5001197293177557 -0.009976141672678263 0.13934191753856845
-0.499700410292215 -0.011808948018588797 0.1335256222071984
-0.4986685911733344 -0.014437540544333279 0.13837773597582093
-0.497949806485473 -0.01516641996153096 0.1436543030062218
-0.4980099113174135 -0.014196447016959017 0.14723956619261153
-0.4991162791950043 -0.009164526703558306 0.15195292175357572
-0.4969247189535423 -0.01895566685893346 0.1272975936540608
-0.49528998699245635 -0.02207118703992954 0.12188318018925952
-0.4898500709872349 -0.027557389791426693 0.12099145420834989
-0.49113794754737106 -0.025543841412629227 0.12939925562407484
-0.49143672857552967 -0.02478771684379285 0.13480960579391615
-0.49381150939330143 -0.02099724841066364 0.14463303387458828
-0.49011670100617155 -0.02851118244018746 0.11487366060392971
-0.48917409152123265 -0.03240180530785752 0.0985321658843667
-0.48335333894821236 -0.0341300686098085 0.10221850183420217
-0.48078657743775705 -0.0331686962061309 0.11161765561778748
-0.48620690180196896 -0.029157732854899476 0.12521017543439622
-0.4876457732702454 -0.027172672843262927 0.13284777244215387
-0.4765206304927571 -0.03525486775345056 0.10412364900186236
-0.47365130439407016 -0.03505481548875515 0.1070637303765443
-0.48002409748685687 -0.029063804263623854 0.13506075565124104
-0.4804448730185791 -0.029023886374702455 0.1348115965314198
-0.47360489514807924 -0.03886386124002445 0.08380499782461917
-0.4685562237738378 -0.04021407917485128 0.07839836858592192
-0.46786715447317884 -0.03997574094168162 0.0805578977611397
-0.46287048517404217 -0.04095257014948917 0.07758886400931592
-0.4616288401243229 -0.04098547532779034 0.07826008724179709
-0.46279273516162034 -0.03863503591798113 0.09286550956410973
-0.46819215271194126 -0.035265823228616815 0.10954925820521012
-0.4707504452077183 -0.0343171184803205 0.11320397742874645
-0.4530233267674672 -0.04037205102538922 0.08738314986894143
-0.44867083074252084 -0.04185609808594793 0.08074376060298
-0.45320247175005446 -0.03988205064894917 0.09015244238762107
-0.45192133257328937 -0.038998372197348426 0.09520611968522671
-0.460322150629233 -0.03515802499975166 0.11279762394195976
-0.4672201586435623 -0.033621657191258966 0.11883712703136833
-0.4420135408854717 -0.041163602068185826 0.08845092868940936
-0.4415442076645917 -0.04241827713767988 0.08146348152256243
-0.4455589641608507 -0.03916149791604794 0.0968372573748814
-0.44149600256420723 -0.041010388892789976 0.08934585014968804
-0.4485205109288264 -0.03658323494967543 0.10792852980118936
-0.45790447741356405 -0.03418623371159679 0.11811160824079243
-0.4376799038859119 -0.04386640272336009 0.06868479540784637
-0.4374201060602663 -0.04484694060335242 0.055903194903705815
-0.43264064598598173 -0.044467077691886486 0.06274462469692901
-0.43590070400665626 -0.04475830199513263 0.05801934764236929
-0.4337954845894548 -0.04486213336086606 0.057107999852017005
-0.43003450420466877 -0.04409628466132323 0.06729411875203285
-0.4267397209534433 -0.044773330166280344 0.05877642834008947
-0.42769721462729593 -0.0428646992188132 0.07669417479397737
-0.4313128652760545 -0.042730883001615406 0.08174797629323831
-0.4330955711609972 -0.04160884074837129 0.08734244696011083
-0.43719192823349623 -0.038204636687558684 0.10119550254643962
-0.4414724779660571 -0.03806984097162786 0.10181682145824854
-0.41864130978467173 -0.04484904991887293 0.03020605955410161
-0.4229305660461051 -0.044686780560357346 0.054735673872299044
-0.412479451979736 -0.042255064159015886 0.03519694702102401
-0.4105661770296991 -0.04147672993014867 0.03427349039772303
-0.4144979350211366 -0.04310541445224722 0.03560644073569141
-0.4100584924216979 -0.04071198006977152 0.03993058473659276
-0.4117264719316588 -0.04154767763096747 0.04082272428255436
-0.4068137015366327 -0.038987640939785385 0.04037352545955993
-0.4175098407717018 -0.041534561420622416 0.06912622189299131
-0.4255370752696349 -0.0425839911940302 0.07738917880135476
-0.42171879349451563 -0.04101022273050641 0.08263409632183548
-0.429104822462214 -0.045668064617030185 0.038491078897737285
-0.4331981682423185 -0.04567986289378266 0.03685640975743919
-0.4303045040461719 -0.04560763276841243 0.04007955886142175
-0.4253077516431253 -0.04547358233813039 0.033036969416795216
-0.4236857632134905 -0.04533599305080529 0.03186494143048374
-0.4234490958682099 -0.04535538773891181 0.02868513898357593
-0.4198955588577376 -0.04507984855516303 0.024143182643803433
-0.44511797107054496 -0.04468553084104863 0.04513341129780662
-0.4469612349012281 -0.044555784061027 0.04594553590246389
-0.44471489514325013 -0.044834259291075394 0.032267806791039765
-0.43836154837332564 -0.045309893110977106 0.03407661521440545
-0.4431148616747281 -0.044981573733118285 0.028230152265289913
-0.43868985762167 -0.045233599575479747 0.03715514751862333
-0.4432165052786323 -0.04347443410506253 0.06873252487299447
-0.4452783486095225 -0.043391964921350695 0.06784296667862849
-0.4466902128011602 -0.04351563108819523 0.06480594864938646
-0.4510306555550205 -0.043087581179221165 0.06598664305054083
-0.4539158621422946 -0.04238493201486429 0.07289013712995109
-0.45375720364589445 -0.0441704685898851 0.011699754808015975
-0.4544874821077826 -0.04405753184009499 0.018644987929611483
-0.4516915872907305 -0.04434542337791847 0.014086873762992473
-0.449577479197464 -0.04460930880650611 0.004284267924221577
-0.45340687575680466 -0.04428636126289051 -0.0008292771978662092
-0.44991496969978817 -0.044616105833883 -0.0010124320772549177
-0.43467438476635006 -0.045944694394461486 -0.006242662905003033
-0.4423551061140916 -0.045315812263736724 -0.002550202350295615
-0.43891438850618997 -0.04555131766906311 0.0015400598787820097
-0.43268724989955004 -0.046021034756132444 0.01044701001542615
-0.43562568081151326 -0.045756505691053544 0.013088017056228878
-0.4375174164823142 -0.045576204756041204 0.018266175602265424
-0.4371108994751238 -0.04561253200446301 0.01799436804789338
-0.44940955210440536 -0.04435205410854705 0.047226080501521404
-0.45329096735454527 -0.04397008080245745 0.04370330943037411
-0.4521900889650303 -0.04420601637978629 0.02610404808099475
-0.45736476532631504 -0.043687661143322426 0.030165890036554184
-0.453598803424409 -0.04397642205895166 0.036204924466514535
-0.466144178514157 -0.042373016043804806 0.03652145241706305
-0.4669146705185596 -0.04236391906667333 0.02462847515028049
-0.4628448007089016 -0.042948464928450704 0.02631373450209241
-0.4647099607784639 -0.04267830672693957 0.02796947974571212
-0.45505103537460145 -0.04327571937010806 0.05652142040724728
-0.4545128544943222 -0.04343099127621856 0.05496196611483155
-0.4601047198390962 -0.0424409087742831 0.062034607369190614
-0.45676264515237824 -0.0424884072039748 0.0664011692674056
-0.46856070047273013 -0.04129052456822117 0.06783098831414143
-0.4690348674794347 -0.041192954344963006 0.06872541253577479
-0.4687311399781696 -0.04161523683757343 0.0572040954622854
-0.4712798452334099 -0.0410141653122066 0.06516497983427144
-0.47429889198194997 -0.04111836110172455 0.011431456398399412
-0.4735880766598234 -0.041296806007287745 0.016945969868029348
-0.46695462303234264 -0.04217651766336224 -0.0004833552788523803
-0.46887876699034214 -0.041911328729316036 0.004418894839408084
-0.46311270696346074 -0.04281669597729057 -0.004621951267322573
-0.4602733162101741 -0.0433882773642454 0.0015043153575190525
-0.45714283886689017 -0.043833676309054215 0.010302890812230759
-0.46062764436754916 -0.043351163941503394 0.008755401156360991
-0.470711723279203 -0.041737142081352666 0.03827196535516929
-0.46946388804955785 -0.041789592657860135 0.044472192142307694
-0.47421989554915456 -0.04134277888440839 0.035472038003886174
-0.4737647887095442 -0.04134308211146136 0.024894319397759004
-0.4845717034996956 -0.039090905164494816 0.03401188439812546
-0.4833837272444199 -0.039074735462888734 0.020670298533495984
-0.48309112278161476 -0.03920528652247302 0.024569098681598584
-0.470157195757721 -0.04165169327759094 0.04777427339575598
-0.4708941871222994 -0.04131545080940661 0.05610967220375132
-0.4748531511223131 -0.040411557721437404 0.07192395982746118
-0.4763127769131827 -0.04041182947070525 0.06662364261907609
-0.4821221257147356 -0.03940780925442182 0.059291495082909686
-0.4862643037133516 -0.03821791857098345 0.061686239444229525
-0.4906138648017408 -0.03487357282339375 0.05617976875859471
-0.4896067450357106 -0.0358852304489034 0.05538872727819925
-0.48136129422487395 -0.039209906527826036 0.07481581441720009
-0.4856161034641291 -0.03593952133047484 0.08738253897632398
-0.49022738091981843 -0.03251359464125033 0.09131660203975836
-0.4904506278937763 -0.03462121209313003 0.07121421121398668
-0.4945971485056582 -0.025642655465226132 0.08860936257322129
-0.493053947734368 -0.030640234891000925 0.07628847590115694
-0.4918847573483365 -0.02872929625836002 0.10512449752002101
-0.49504395528125933 -0.023295624773648875 0.11253764411516708
-0.4960650580764596 -0.020787674592037775 0.10671113244695953
-0.49537918431175354 -0.02296525911597222 0.0991977601254375
-0.49630533057028126 -0.014824532939590584 0.10656814856981363
-0.4954955147076684 -0.01714126077296629 0.09915481691013686
-0.4972831984775323 -0.01844733461140174 0.12089602384425643
-0.4987440356567138 -0.01497646199451201 0.12925397409197587
-0.4989898452016136 -0.011698717235103686 0.1222845682214664
-0.4990144079884761 -0.008603027756669183 0.12268841402659098
-0.49663906298585786 -0.0020359716763622563 0.12350400062512817
-0.4962728848913155 -0.010334207824294265 0.11205415864937364
-0.5004405779775885 -0.005568202356618934 0.13532879021265415
-0.500893814689991 -0.005220483271845535 0.1431249578212355
-0.49875451064530885 -0.00047702289623365225 0.13542009589186083
-0.4969962110091458 0.0021419303225193244 0.13420372892066593
-0.49279758439994076 0.006823476473548375 0.13923845541463092
-0.4945567735461437 0.003027619526216203 0.13077024191976813
-0.4988545492247143 0.0016766785156200887 0.14509549262500057
-0.4972666117274588 0.004518138877117901 0.149896789026312
-0.4940803777561417 0.007394611913767621 0.14567654618317463
-0.4935545727478512 0.0075008404447843464 0.14440192184791872
-0.4883557871736278 0.009820466913810704 0.1443957107963323
-0.4907579047978683 0.007653554507809504 0.13939641207054201
-0.49216681402067874 0.009879430208294553 0.15180084840501304
-0.49075917315950257 0.011216744807049246 0.15355024244323973
-0.48591619398364067 0.012379631445995807 0.15176869507626728
-0.48489711899866417 0.01232736936051284 0.15073965520374952
-0.48173924652324374 0.013247794242558926 0.15594629418874703
-0.4762570812984772 0.011827655435219948 0.1557006238183724
-0.47866697574506206 0.011278429344840904 0.1500442609144412
-0.4833551102195622 0.011454079836369832 0.14827681072280288
-0.48580744298288836 0.013214169452400816 0.15516652456732513
-0.4836278569601443 0.013511907650602686 0.15839696840702397
-0.4780633931718503 0.010769856512773778 0.14930507975210833
-0.4748232972536108 0.008922201538905336 0.14692431438692025
-0.4780082175641647 0.009005881845877521 0.1443083538001382
-0.48188881983578913 0.00839505606375916 0.14002737120553885
-0.48414960026881165 0.009319238468931009 0.1422340525135331
-0.48631117908553734 0.009198986962137315 0.14126670476302994
-0.47851709358218775 0.004551669696857587 0.13284426649280315
-0.4805061664866322 0.004857779976574286 0.1324704659238548
-0.4847144903907123 0.003943567181914354 0.12834972368526915
-0.4866577864579609 0.007536169539113704 0.1366503879829023
-0.4811516444851059 -0.0021414868408516025 0.11738878734499375
-0.4814775390799175 -0.0021976479056463574 0.11721960169455627
-0.4862740194980783 -0.003496457197850352 0.11486783211452571
-0.48875318773475906 -0.0025472765376627258 0.11607037918641572
-0.4917499544826147 0.00543462467364543 0.1335031173440182
-0.49016450996506755 0.006261166923859614 0.135273697993125
-0.48169459750404725 -0.010108142780516178 0.09765256510988236
-0.48302954350037586 -0.01183386177359449 0.09332950723882277
-0.487365920707838 -0.01111694107788482 0.09645106789136507
-0.49018870790474767 -0.00914316190461577 0.1028009101873722
-0.4947382386824764 -0.003421157609472195 0.1188519041753006
-0.49453685286163657 -0.0008199467372642997 0.12317758868040635
-0.4866480932079652 -0.01357407803535587 0.08791599595728397
-0.48722355689039365 -0.015656873803563443 0.07379784097498711
-0.4895799570144225 -0.017030064428893432 0.07329748634393303
-0.4921418194274812 -0.017400523057486135 0.0813655925296075
-0.4941587871389451 -0.013748150381019198 0.10010309753410897
-0.4938488474307497 -0.009097608454430169 0.1077104625632182
-0.4889976090629857 -0.018461906312764634 0.06249392999178923
-0.4903581057750956 -0.0208961828208501 0.048425890571527686
-0.4918209294082876 -0.022493949384326428 0.052575313442617566
-0.4940033053532052 -0.024846651102911222 0.06810609908864829
-0.4942102720709735 -0.022362030080745235 0.07886588486123054
-0.4945836971890559 -0.018838155515962178 0.0908457815838047
-0.49001315315847943 -0.023404415206225528 0.029780375497191425
-0.4888929249480266 -0.022370579009707674 0.021698469143457022
-0.4909496161610629 -0.031399122511029234 0.0263549487918985
-0.4905452372584443 -0.03341727593658624 0.026636563948903423
-0.49181827877205286 -0.03270742545520814 0.045843157120562035
-0.49305815636191014 -0.030878914871641315 0.06957878999471641
-0.4909148389890628 -0.02810906217982031 0.01984756252546133
-0.4912674419085127 -0.027733692537375548 -0.0020287198055591272
-0.4882160796422537 -0.03529031032426524 -0.0022855723212249763
-0.48584261349265123 -0.0373578479036824 0.0026593013037977974
-0.48676158871097197 -0.036988309772650135 0.022465586112323375
-0.48958107132520257 -0.03532200182619886 0.0355278380316062
-0.4906626248580369 -0.03411105937120337 -0.019570179263181612
-0.4887427401656421 -0.035724797400607564 -0.018655705819490075
-0.4836738302684994 -0.03931267389085552 -0.02121560734102447
-0.48436038444099544 -0.03906956285443519 -0.01885720547415637
-0.4784364646999866 -0.04038494762953928 -0.017633283569679966
-0.47777638477242684 -0.040328965891082785 -0.009082779600376789
-0.47791509276026656 -0.040415128709530165 0.015397563712032875
-0.47939093044112696 -0.039870465026487376 0.0034110620946437797
-0.4814953386624435 -0.03951892991872743 0.017642562106978933
-0.48265201354089315 -0.039166777987808994 0.014236574891079535
-0.4874762483550531 -0.03822343136854146 -0.04789537883134575
-0.4855254066962464 -0.03878370525083858 -0.04332867287495823
-0.48430983373434006 -0.03925275436843796 -0.053022204411062375
-0.4787532984393884 -0.04070174576542817 -0.04325645481315983
-0.4761472826640351 -0.04088016292800099 -0.0519224311571114
-0.4716718073580744 -0.041397664349602424 -0.036861385181633975
-0.4726939863351805 -0.04133008482587212 -0.0329979011981779
-0.4698425763270171 -0.04168304523773808 -0.02561563054701573
-0.47146406798369933 -0.04155032001411462 -0.022320290376383726
-0.47229511436219934 -0.0414693239362788 -0.015134701931477281
-0.47502639335464936 -0.040904670693542255 -0.009004262353075089
-0.466952016040138 -0.04180115969006304 -0.05035356664527574
-0.4649660341182736 -0.041992123992117276 -0.05540552727938282
-0.4620756329012179 -0.04245876096748462 -0.0462724670148856
-0.46329214125950535 -0.04237444714612044 -0.04079214034651099
-0.4569645637719395 -0.043843744427352345 -0.011736541780398492
-0.45823627818892054 -0.04339537063928918 -0.030107304556176488
-0.4662879067344259 -0.04220889675085061 -0.013605869768851593
-0.4649692493839632 -0.042434813230380626 -0.01606513993954963
-0.4563715590144511 -0.0429794621130775 -0.05360869560331661
-0.45389769539760216 -0.04335815412561791 -0.04902257616201567
-0.449307311690344 -0.04365720748065052 -0.055031485469643454
-0.4530073464355968 -0.04353260068237322 -0.04609485771467298
-0.45246714143308847 -0.043771494255440864 -0.04012436180242886
-0.44876720995142866 -0.04444980212034472 -0.027896397453760522
-0.4446285382704411 -0.04505422601184412 -0.013523297006384315
-0.4439854925831429 -0.04519500475398255 -0.007420925154822083
-0.4549853068634666 -0.043977402773957126 -0.01720754377632294
-0.45364578190484184 -0.04411538516714195 -0.01661930111331723
-0.45388868669710886 -0.04423058917555219 -0.008338982239858319
-0.4446725002833721 -0.043723233539487504 -0.057817116139843465
-0.442745171594629 -0.044236413310047434 -0.04767673642539302
-0.4326427236454096 -0.04537290173097079 -0.03828572784325112
-0.4409326626002101 -0.044202759126006165 -0.05027200386366699
-0.44037709518595525 -0.044468279038454475 -0.045727784237642954
-0.43306072180336 -0.04591083541307956 -0.01709279817564131
-0.4347731163511383 -0.045722499461154975 -0.02044800441087838
-0.43727987544690367 -0.045256259058467835 -0.033313122028063004
-0.4388953403318892 -0.04544975257533115 -0.01913522607879672
-0.4362533728506122 -0.04578044418182134 -0.010239871407126898
-0.440577695189684 -0.045484383979794346 -0.006695933028210723
-0.4490609725011526 -0.04169895461021127 -0.07440129675700662
-0.452222961556118 -0.04177907675075168 -0.07197223321186641
-0.44381583680951103 -0.04171311270318624 -0.07569549716790193
-0.44731815580822565 -0.040400788196599195 -0.08436918455318748
-0.4391127498734569 -0.04087544266538201 -0.0816004334738958
-0.43921567539621437 -0.040031036965396616 -0.08730227132360986
-0.4352827762449462 -0.04270083046769708 -0.06971296763932801
-0.43071707601155984 -0.04322897447940279 -0.06675864154035854
-0.42357573782620606 -0.04414204853787965 -0.04553816677680245
-0.42760403190265417 -0.043988841187066044 -0.05138328730466199
-0.42773622778998194 -0.04455879715878896 -0.04424132731884873
-0.42825364317818815 -0.04512702285060904 -0.038473448845590806
-0.4318034803754341 -0.04506073033138209 -0.042292629029026266
-0.43168861108711654 -0.038948994852527105 -0.090177273656968
-0.4308296610235898 -0.03929120630703256 -0.08801494367759025
-0.4261674298345034 -0.0412205691626464 -0.07534749585527604
-0.42898393886791875 -0.04091081001057197 -0.07874749778043834
-0.41753498831153707 -0.04219395635567612 -0.05253952782871198
-0.42286645406257867 -0.04236708976102789 -0.06559284906417903
-0.41626781076412595 -0.04225096046291501 -0.048236980673217085
-0.4134535739959561 -0.041979262378007524 -0.04415688816454165
-0.42650488334110775 -0.03755488713448957 -0.09142982585103354
-0.41786915388550444 -0.038306334122470254 -0.07699284295119438
-0.4110907910381429 -0.03893177575252517 -0.05686555481866788
-0.41554964208664064 -0.04141670703374424 -0.05510358798302132
-0.4111113079970135 -0.03543074259363675 -0.07126392371584551
-0.40638918138979113 -0.035667730268459506 -0.05474379261602631
-0.39541547934338583 -0.03002347212662762 -0.03228390587548417
-0.4004849111712749 -0.03435234012707358 -0.03516877931530428
-0.40211782536935464 -0.03667110853583755 -0.022604896830518483
-0.4046372748107154 -0.03799103941410517 -0.029921234240168407
-0.39043510987502045 -0.026880314302745886 -0.024907043757509816
-0.38654333384960365 -0.02456155592554345 -0.01773338821032561
-0.3901461248484264 -0.027997602683739003 -0.012151766977881397
-0.3912842899240742 -0.029136962715445937 -0.0064377995802070275
-0.3848976577481985 -0.02494281203166385 -0.01605214412134511
-0.3766175610930175 -0.026043443243223285 -0.010246957646035625
-0.3775247281568532 -0.026640986926238917 -0.007725315037437687
-0.38121290075885733 -0.02777373613444673 -0.004127518816268688
-0.3583380615785386 -0.026368498335623245 -0.010532336989323607
-0.3470756786995642 -0.02708325524954108 -0.011346049199669347
-0.35504466393387724 -0.028095305873970015 -0.0022964892775261506
-0.3587398693006084 -0.02807890703586568 -0.0006494584115238899
-0.32746043024145494 -0.029599489654381115 -0.0035264882183835603
-0.32989376915334334 -0.029832659564750404 0.0010867357159791316
-0.3319763090803779 -0.029820750763951315 0.00469026782184778
-0.341415843310167 -0.029357819439107438 0.007955409417703637
-0.3512235867260193 -0.028865658456476092 0.008426272130687145
-0.36132884289737077 -0.028202330951043728 0.005038750918845141
-0.3322400182121601 -0.02949724515090831 0.011392361177380678
-0.33679623608958464 -0.028672516865173716 0.013967525266695568
-0.3536618581517817 -0.02745770679579423 0.015608357127486924
-0.36379093519804556 -0.027388097384824797 0.011347906896971963
-0.33463120501631366 -0.02737337158555884 0.018805638184209505
-0.3378173077342628 -0.025898704355912346 0.020717297900199678
-0.3480212697204058 -0.024822032500460785 0.021701260798813505
-0.360044376056901 -0.025825773297559165 0.017915908291286062
-0.35292424630407876 -0.023547549940778758 0.022837492485328206
-0.36055683305143116 -0.02013451645285609 0.02497886478495583
-0.3704892171668582 -0.019295255667530674 0.02590234678103074
-0.38552459011540535 -0.021948896118750293 0.031042223540085935
-0.37912920825155205 -0.024425360491149874 0.023529727875088054
-0.3867249304960941 -0.02773988537389662 0.0178465184144051
-0.3918105270503199 -0.026035409634688648 0.03843574572219107
-0.39348286831605295 -0.028973650100146978 0.03455796631398252
-0.39893214297788765 -0.034187291646761396 0.03327238270516866
-0.38973440350576255 -0.027623027528399006 0.02023679635010747
-0.35732696903337285 -0.017987815139124775 0.026932726785681285
-0.36290757294330156 -0.013820501697749853 0.0285609523112432
-0.3812346965518087 -0.017354203264872387 0.03335859519760866
-0.38440991448677087 -0.01898395098274313 0.033625247083059605
-0.3379779058995092 -0.016880032991243323 0.028747794479257106
-0.3254318274534202 -0.01676970913897691 0.02928242329948271
-0.32730619703607183 -0.011493337822320062 0.031439230151617786
-0.3395442657299357 -0.008812476796314025 0.031844746513459365
-0.3503004382043119 -0.00731210766019951 0.03182017713268758
-0.3662856161296402 -0.012660696128061973 0.028559482210890705
-0.31053531206186435 -0.01060922949694315 0.033310902799406156
-0.3055099554398631 -0.005140879451917277 0.035305872594553554
-0.309969481184336 -0.0041415728741247505 0.03473755554991235
-0.315029224168562 -0.001255532573648943 0.03352404842982528
-0.3248782317092937 -8.363321709242806E-05 0.03241325334419012
-0.33993168813425534 -0.001960769162522549 0.032143109962231506
-0.2934123682661868 -0.0009326765039461628 0.03638321163876079
-0.27726286359004043 5.0617292417542864E-05 0.03899409669446878
-0.2765933227495643 0.0001476075336349355 0.039108053528805274
-0.2733904028031747 0.008864487148631932 0.036408556810877804
-0.28373373443207683 0.004223326700002173 0.03708689193826556
-0.29751119930428654 0.0053792772899510155 0.03241326790179126
-0.3121160646128833 0.005502166790227842 0.030430191833755886
-0.31214724187298937 0.002730119897286765 0.03255576877958639
-0.2538452422646905 0.007519960615231036 0.04121360696102576
-0.2679199337379894 0.0066385680927755365 0.03910140193183963
-0.2503384592471014 0.015915903852550237 0.038231631111802424
-0.2558309650368859 0.0091198765591529 0.03970142354541937
-0.25887979551350276 0.015513613184245847 0.035530390512680594
-0.25589469631141376 0.018251800504567844 0.03357758489157252
-0.25283197322727374 0.02136025013597191 0.031199679405295583
-0.26466984207046385 0.017544329135319628 0.03065561927656681
-0.27504637932840215 0.01587799915022115 0.028161111565317573
-0.2821612357902656 0.013082531627443753 0.029379276083760817
-0.29620789603562175 0.011701054851441593 0.0261438788434563
-0.2376329495482572 0.02020210621498059 0.03863517475877646
-0.23278226406802355 0.019361506468882832 0.041582158655130666
-0.2355539396848681 0.02502047347356475 0.03475990322692532
-0.2319806869210571 0.025807563471305545 0.03563125210642866
-0.224427021825601 0.025995651512065673 0.038773382103421815
-0.22469085944522693 0.03624441499073975 0.025373088948668243
-0.23137874777387762 0.02900412816680019 0.03237677033762296
-0.2350361338545924 0.03048129045800059 0.02786872365259586
-0.2473746319160184 0.028232820150643736 0.02378834427663626
-0.2384260706139233 0.030807705973579555 0.02530509526813345
-0.2575744410153421 0.026049294212159704 0.02178546476529424
-0.25005286136741456 0.02631825883726228 0.02525016893050651
-0.265996357773834 0.022143525816880654 0.023422709212316015
-0.2611333472599635 0.02271307768022197 0.025073339705928982
-0.2139417109798775 0.033814783515716706 0.03699067436194573
-0.21446800713712402 0.034101626150153316 0.03616240205280196
-0.2141679824106495 0.03367301567546912 0.037038046273284726
-0.21188834459844003 0.0372831344282963 0.033141367589031766
-0.20140851551456218 0.04312482232140353 0.030417625721929326
-0.2106651337205554 0.04074754121910831 0.027830261776143103
-0.21044935705568765 0.043783941670766144 0.018838380762842753
-0.21073243903529293 0.04239906951320123 0.023141953295297384
-0.21229234884983483 0.04120817225189267 0.025218041667430118
-0.22126749386031375 0.04077567966118598 0.015101292254489194
-0.2128921458375752 0.04315683281755086 0.017872448987794037
-0.20809264356853707 0.04633392317548826 0.012962698976142157
-0.2253431144993825 0.039454203868051464 0.014371656413515755
-0.22758081501896069 0.03775740035626049 0.01752086106250868
-0.2334436702399888 0.03729454666537074 0.011480547926951539
-0.23799339288398536 0.03331844697284485 0.020194299145092687
-0.24258223380861696 0.032581011591705726 0.01670547900168393
-0.1826765984693495 0.05244848118530184 0.03067509141705675
-0.18924016482532593 0.04972543553171607 0.029272086377025677
-0.18741317866969587 0.05177205645287393 0.025373825484824114
-0.17984224807339677 0.05874344422212171 0.018328004609540958
-0.1793562793785785 0.05395440513024946 0.0313804613813471
-0.1819955219686747 0.05868010053852606 0.015380847690430764
-0.1846825045896366 0.055491524218900856 0.019722381996511645
-0.1860809350021122 0.05681535628332243 0.011629641091784585
-0.18363050011620635 0.05806590457177902 0.009882329167532644
-0.18801170469111284 0.05575791199590889 0.00916544908606022
-0.18412731600470378 0.05771462541523697 0.005030009671367402
-0.18616191725556355 0.056563370542316284 -0.004068304301638413
-0.18731841891432033 0.05597221790870059 -0.0005054226237243559
-0.1850942351604 0.05709871197105153 -0.0010595094379080101
-0.21024836108658107 0.04566224037046509 0.0029922693055087967
-0.2041371287278341 0.0479145841936574 0.0030718502374727347
-0.20921228329055494 0.04606268372053088 -0.0029783758961788704
-0.2061359973953096 0.047189996992229824 -0.000853320626985076
-0.2140720356104935 0.04429942798850147 0.010334887124612935
-0.21659616839265047 0.04336532734965445 0.007551087972385072
-0.21543077204616343 0.04379453952068678 0.00857925687682212
-0.16336338958151325 0.06554482085684053 0.012493281945419057
-0.1752131709269336 0.06158784288757087 0.007085405484790092
-0.17152209400056806 0.0627780244430058 0.005999017826428614
-0.16023237534939658 0.0666327727918326 0.016695928392345624
-0.16153767044023676 0.06612098210748157 0.00991958208112815
-0.1605326298559801 0.06643365458316045 0.00697647988782254
-0.1648436254103723 0.06497495542718756 0.004906889197773125
-0.16439287248586132 0.06505657479802734 -0.00374076100382792
-0.16497887694986937 0.06484569992988869 -0.005596124681245642
-0.1597299162342846 0.06233601067653231 -0.021768759569537086
-0.16610101449340883 0.06418687889339943 -0.007236298327795024
-0.1634581716870007 0.06282706337893872 -0.015402149985892613
-0.1653615143239942 0.06319131743049054 -0.011741868678990637
-0.16283077516994726 0.06271090199768495 -0.01659457722804976
-0.17669548686498987 0.05711925656856354 -0.017715726291472826
-0.17266170334015335 0.05753388339270146 -0.021299132830315176
-0.15964137384697447 0.06116698948049862 -0.026044142668603408
-0.16216646690646347 0.05957946442191076 -0.02774861140171414
-0.18154501585918065 0.054330375232709525 -0.019567739800062916
-0.18183613781579638 0.05439387437142169 -0.01897721252380598
-0.18296018671669637 0.05290102768923443 -0.021803687849820723
-0.18963656181726382 0.05204293169106497 -0.015060825064249684
-0.19872184031097376 0.0490563738148427 -0.008739946562974563
-0.1980576830232141 0.04905199302369829 -0.010066399685752693
-0.1909247295940655 0.05201696241950953 -0.0130260279525635
-0.19117319206993116 0.05285429733115589 -0.009398375889983242
-0.14782177000887012 0.06844648742640452 -0.01704963249751271
-0.14947081487853983 0.06882076477873422 -0.013182031958810694
-0.15608372138508525 0.06473898931713457 -0.017659995702455057
-0.14940040616792075 0.07040337141924381 -0.007623766548213348
-0.1384904068192746 0.07296534907590259 -0.01577339713140812
-0.13799299606727483 0.07392187501660734 -0.012905728242146008
-0.14375309226138508 0.0667282221095102 -0.030840107874918914
-0.14086505638266517 0.07061848058271876 -0.02073309969462371
-0.14274990558688086 0.06690244933277031 -0.03195931690664784
-0.14386819768245346 0.06341745607144761 -0.03498651364447436
-0.14446844324624947 0.06617231069196217 -0.03168359381946635
-0.14371316859779723 0.060672375870700665 -0.038001293897721486
-0.14019679692562997 0.05853525503435461 -0.04246678382162966
-0.14210438035339143 0.06189171101140453 -0.037708766558823506
-0.15203731264038473 0.0536754128647939 -0.040691162603254706
-0.15322307916598724 0.05053479458849846 -0.04354483827956917
-0.1518588185327227 0.0497945978410874 -0.045198217280658225
-0.1517066811222066 0.05328612401749875 -0.041329873771806074
-0.15362217588119842 0.05264168325171046 -0.040917647168159536
-0.15381811733667763 0.049849000446141274 -0.04396912847839016
-0.16025137952075172 0.051723757029560655 -0.038147290287009306
-0.1715880548789454 0.041710048886635424 -0.043049827058493674
-0.16099919408187344 0.043824892284740596 -0.046711455898325614
-0.1657785965817131 0.046676954225789956 -0.04072492806141441
-0.16989739966008918 0.052607515513628425 -0.031758710272378324
-0.1693863886672456 0.04935357701550072 -0.03566834321918638
-0.17398144312045274 0.053816332532924005 -0.028172500531849255
-0.17205422832629835 0.052921501930823914 -0.030226650920413378
-0.13001015059632817 0.06879273576002602 -0.0370663566627967
-0.12424581067723423 0.07261077457272533 -0.035649594524449366
-0.13491302780124584 0.06990518189850858 -0.03347621050161025
-0.1318395792517598 0.06677367442045297 -0.038403927750648166
-0.12340630977558903 0.06805351322660508 -0.04106707760526143
-0.11583666898949962 0.07057643658184987 -0.04222692506367391
-0.11977386685515924 0.0693834802689807 -0.04143153047962647
-0.12313339567834146 0.06420369092021967 -0.04549951862651365
-0.11853501316393786 0.06634384541581151 -0.04557667679717818
-0.1153102264299943 0.06329817369483978 -0.05081619171531137
-0.11401843381713529 0.04179420691991088 -0.06624154476887534
-0.11961860426394329 0.053761922300243785 -0.057587387317298275
-0.12084017899509916 0.05443062665594818 -0.05680600781085141
-0.10780021968223369 0.036881171688747515 -0.07107884324281988
-0.11452101828522777 0.04706096064508207 -0.06307606648980008
-0.11410139557549322 0.049795038559915246 -0.06165585139270087
-0.12246213721083078 0.03900584523213212 -0.0653392278086202
-0.1269802260177051 0.031176900159684443 -0.06878717852794805
-0.1289837693183878 0.039620288632719276 -0.06302336575675115
-0.11702044872630873 0.038252989479637796 -0.06741859010299121
-0.11735653474375064 0.03764483319509145 -0.06769085488283301
-0.134152817038714 0.04041605995064693 -0.06069857634190844
-0.13095759977087332 0.03329864101005032 -0.06611377018192079
-0.1307190409169109 0.038178460132572145 -0.06327437971207885
-0.1380303112149388 0.03951859983469119 -0.05984252787951141
-0.1324915346244233 0.03508928227607401 -0.06448891488541142
-0.14274937311133373 0.04653533634311347 -0.05323822886863372
-0.14438534105073728 0.044750030428761335 -0.05367977715858044
-0.14692269594960913 0.04258436071312686 -0.053962725168572784
-0.14923055086085465 0.041650368876802187 -0.05353009737502777
-0.14802716089674478 0.04650206122828009 -0.05084820362627538
-0.1027748362518305 0.056715400125417835 -0.061137082729340826
-0.10296321169308999 0.05004959730340003 -0.0649224630518507
-0.10692296974699413 0.061109770448871274 -0.057387426605707385
-0.10761185063328699 0.05199337409061213 -0.06243785362581981
-0.09995527025451206 0.061454979022396876 -0.05923395775926724
-0.10266083755267531 0.05566179013544554 -0.061777613526891456
-0.09684122357215291 0.055509496202426484 -0.06352381660574818
-0.09085173683030777 0.04229418961170357 -0.07189499122437192
-0.09327572089030425 0.05096263505442961 -0.06672030885369762
-0.09840129259281935 0.048818087520427565 -0.0667970457462014
-0.09155806384638962 0.06276939626817876 -0.060727242002752105
-0.09772914775540484 0.04260375219571713 -0.07028274229443719
-0.09039860154153265 0.03812181300572805 -0.07422187349707483
-0.09578128134632621 0.027720795495640767 -0.07863134262040557
-0.08787747369424959 0.01768750407383553 -0.08560784757560128
-0.09028922148445948 0.03355079016392454 -0.07667432697587236
-0.08768304787300137 0.03405345059564856 -0.07694900985982522
-0.09627242573580766 0.015633639339270117 -0.08412494359636724
-0.09979395207916748 0.0231999569311504 -0.07977277306897697
-0.10033324755671873 0.01323904710102759 -0.08397800293685259
-0.09694767818083497 0.023249134071688306 -0.08058955823325392
-0.11593502942307196 0.013076372145085485 -0.08179400647816353
-0.10873632953682542 0.01642824844865946 -0.08059643692545806
-0.11388807012417008 0.014456033895635533 -0.08126531867848186
-0.1072712955571496 0.01947230703528921 -0.0793108478904162
-0.10868632954765332 0.01720179908017895 -0.08025716538108679
-0.11724036714848575 0.026923413479157048 -0.07453262927546325
-0.12567599304422158 0.023531909356770266 -0.07417519220639487
-0.1213877194853695 0.030548004084304848 -0.07088282073641627
-0.12430347861906901 0.025627985514458197 -0.07321957855450846
-0.12014393084498677 0.018229473862863613 -0.07935060778843302
-0.0783055654945267 0.0363860516342474 -0.07764521997944433
-0.07950468201121785 0.03614228322555637 -0.07752722573277482
-0.08464411480424068 0.04145977562097146 -0.07363954610017322
-0.07049150366604359 0.046609546375319534 -0.07382410188390041
-0.07633271576583997 0.0422222518402876 -0.07495023327323791
-0.07311385649277037 0.025242244564822693 -0.08248195030765257
-0.07415901843409557 0.021109912989417175 -0.08415652249659386
-0.07246302694044911 0.028410689312243678 -0.081201973917874
-0.07115415370598316 0.02182666966740202 -0.08379116390779118
-0.06838543627564077 0.04872338413661794 -0.07299864362737757
-0.06969235112401875 0.01579930426053498 -0.08602880084773692
-0.07468979855348866 0.017798249428001792 -0.08543854784261237
-0.07178393336522036 0.019359165707855022 -0.08475321002592494
-0.0827866906349721 -0.004274518381017013 -0.08754860705031536
-0.07987332312458528 -0.005166989899856306 -0.08821100467181951
-0.08213896346492756 -0.0007452375176584294 -0.08768122342493909
-0.0837047659143974 -0.001490705344911881 -0.08733003099228405
-0.08801251858862519 0.00033856381497261766 -0.08607304437365448
-0.09128129858450813 -0.0031708939782797057 -0.08492836304063592
-0.09789172046639241 -0.01144569973519417 -0.0826024507862356
-0.09187428117214953 0.00017486429758758047 -0.08475802273188754
-0.08526662386977495 -0.012699209785021507 -0.08688483578537534
-0.09897088814513676 0.0016543323595365215 -0.08326856352617033
-0.10116680154878789 -0.0006702255328409909 -0.0827213986764677
-0.10166122997644798 -0.001166319320736843 -0.08260118706065749
-0.10251458180779849 0.004668158961600348 -0.08312580553403175
-0.10178574830374405 -0.0030230328604936756 -0.08238142192019246
-0.05718956892693073 0.04861449274253482 -0.07542478362798789
-0.048827989845040144 0.06275593995120593 -0.0715512785471738
-0.06352149109291103 0.04974681739624952 -0.07351139535514893
-0.056656927743644524 0.04805371014192864 -0.07577628293030178
-0.05531773215593696 0.05799987534153524 -0.07201190842363865
-0.05520447740871321 0.035701420306521646 -0.08230697108907112
-0.058765274934954974 0.03320276328008302 -0.08212846515297514
-0.0552226931332249 0.0457521174642707 -0.07736709807777031
-0.05120236010998134 0.040191277036068215 -0.08168234348626166
-0.050271375279982655 0.05217342506968533 -0.07616902853160937
-0.05582148829320511 0.017769577863300034 -0.08877324808326811
-0.05894837185801173 0.024259772375908335 -0.08572519811322306
-0.05168629033906218 0.030623887974891757 -0.0856963936895381
-0.05936933588036162 0.013326111914863317 -0.08947868095957894
-0.053397778881632635 0.014659441950550332 -0.09052776726320996
-0.06723545826793362 0.009145468347405442 -0.08903342415334166
-0.037862973096915095 0.05762411089394486 -0.07616892670811888
-0.04784875461301842 0.05363077145719647 -0.07618103507280649
-0.048223707986359825 0.05972873995043735 -0.07315889850298356
-0.03804183488277519 0.061367843864612116 -0.07432341180566185
-0.04614373481415407 0.05179869607168903 -0.0773951407010756
-0.032151176821992665 0.06630366762875614 -0.07322666927162526
-0.03607836379848183 0.048769540046676225 -0.08199269536318113
-0.03903614760505458 0.04955161342179176 -0.08039969070046005
-0.032063200915623064 0.05889406864560517 -0.07760150398402095
-0.039131447601152204 0.046906147763223445 -0.0819130329408049
-0.041100071468241954 0.03473396229271441 -0.08712803482411068
-0.037879763973594945 0.04063184564882573 -0.0858090807688106
-0.03745355294909764 0.03518173280737083 -0.08790243406145888
